ply
format ascii 1.0
comment VCGLIB generated
element vertex 1265
property float x
property float y
property float z
property float nx
property float ny
property float nz
element face 0
property list uchar int vertex_indices
end_header
-0.1488972 -0.1099133 2.177021 0 0 0 
-0.1470419 -0.1099196 2.177208 0 0 0 
-0.1451393 -0.1098903 2.176689 0 0 0 
-0.143255 -0.1098742 2.176431 0 0 0 
-0.1413758 -0.1098617 2.176244 0 0 0 
-0.1394552 -0.1098163 2.175402 0 0 0 
-0.1375921 -0.1098155 2.175445 0 0 0 
-0.1356959 -0.1097879 2.174956 0 0 0 
-0.1338262 -0.1097813 2.174881 0 0 0 
-0.13197 -0.1097858 2.175026 0 0 0 
-0.1301185 -0.1097944 2.175251 0 0 0 
-0.1285025 -0.1100048 2.179473 0 0 0 
0.06485748 -0.1003604 1.989637 0 0 0 
0.06660578 -0.1004305 1.991002 0 0 0 
0.06830955 -0.1004317 1.990999 0 0 0 
0.07000863 -0.1004261 1.99086 0 0 0 
0.07171776 -0.1004349 1.991005 0 0 0 
0.07342045 -0.1004344 1.990967 0 0 0 
0.07511276 -0.1004201 1.990654 0 0 0 
0.07680717 -0.1004092 1.990406 0 0 0 
0.07848585 -0.1003786 1.989769 0 0 0 
0.08017568 -0.1003633 1.989434 0 0 0 
0.0818663 -0.1003496 1.989129 0 0 0 
0.08356929 -0.1003513 1.98913 0 0 0 
0.08527335 -0.1003542 1.989153 0 0 0 
0.08696844 -0.1003466 1.988969 0 0 0 
0.08864137 -0.1003143 1.988292 0 0 0 
0.09032764 -0.100298 1.987933 0 0 0 
0.09201694 -0.1002856 1.98765 0 0 0 
0.09372439 -0.100293 1.987761 0 0 0 
0.09542224 -0.1002901 1.987666 0 0 0 
0.09710914 -0.1002761 1.987347 0 0 0 
0.09879272 -0.1002591 1.986971 0 0 0 
0.1004784 -0.1002448 1.986647 0 0 0 
0.102168 -0.1002348 1.986409 0 0 0 
0.1038674 -0.1002346 1.986364 0 0 0 
0.1055665 -0.1002342 1.986313 0 0 0 
0.1072543 -0.1002232 1.986051 0 0 0 
0.1089446 -0.1002148 1.985843 0 0 0 
0.1106048 -0.1001794 1.985096 0 0 0 
0.1122837 -0.1001619 1.984703 0 0 0 
0.1139977 -0.1001756 1.984929 0 0 0 
0.1156885 -0.1001689 1.98475 0 0 0 
0.1173779 -0.1001611 1.984548 0 0 0 
0.1190538 -0.1001423 1.984128 0 0 0 
0.1207151 -0.1001118 1.983475 0 0 0 
0.1223952 -0.1000976 1.983145 0 0 0 
0.1240847 -0.1000914 1.982971 0 0 0 
0.1257886 -0.1000967 1.983027 0 0 0 
0.1274919 -0.1001015 1.98307 0 0 0 
0.1291661 -0.1000836 1.982664 0 0 0 
0.130826 -0.1000553 1.982049 0 0 0 
0.1325075 -0.1000439 1.981771 0 0 0 
0.1341893 -0.1000332 1.981503 0 0 0 
0.1358955 -0.1000405 1.981595 0 0 0 
0.1375674 -0.1000229 1.981189 0 0 0 
0.1392375 -0.1000043 1.980765 0 0 0 
0.1409121 -0.09998934 1.980412 0 0 0 
0.1425824 -0.09997176 1.980006 0 0 0 
0.1442791 -0.09997288 1.97997 0 0 0 
0.1459814 -0.09997788 1.98001 0 0 0 
0.1476485 -0.09995882 1.979573 0 0 0 
0.1493105 -0.09993687 1.979078 0 0 0 
0.1509943 -0.09992981 1.978878 0 0 0 
0.1526675 -0.09991594 1.978541 0 0 0 
0.1543893 -0.09993388 1.978834 0 0 0 
0.1560303 -0.09989968 1.978094 0 0 0 
0.1577069 -0.09988877 1.977814 0 0 0 
0.1593738 -0.09987205 1.977418 0 0 0 
0.1610402 -0.09985532 1.977022 0 0 0 
0.1627653 -0.09987499 1.977346 0 0 0 
0.1644417 -0.09986466 1.977075 0 0 0 
0.1661223 -0.09985706 1.976857 0 0 0 
0.167757 -0.09982233 1.976102 0 0 0 
0.1694161 -0.09980266 1.975644 0 0 0 
0.1710946 -0.09979471 1.975417 0 0 0 
0.1727911 -0.09979731 1.975398 0 0 0 
0.1745006 -0.09980728 1.975525 0 0 0 
0.1761582 -0.09978767 1.975066 0 0 0 
0.1777972 -0.09975802 1.974407 0 0 0 
0.1794654 -0.09974512 1.974079 0 0 0 
0.181199 -0.0997685 1.974468 0 0 0 
0.1828572 -0.0997503 1.974034 0 0 0 
0.1845167 -0.09973315 1.97362 0 0 0 
0.186183 -0.09971993 1.973283 0 0 0 
0.1878344 -0.09969908 1.972794 0 0 0 
0.1895284 -0.09970099 1.972755 0 0 0 
0.191236 -0.09970998 1.972856 0 0 0 
0.1928696 -0.09968057 1.972196 0 0 0 
0.1945384 -0.09966965 1.971901 0 0 0 
0.1962275 -0.09966931 1.971815 0 0 0 
0.1979168 -0.09966905 1.971729 0 0 0 
0.199586 -0.09965874 1.971444 0 0 0 
0.2012596 -0.09965082 1.971206 0 0 0 
0.2028872 -0.09962041 1.970522 0 0 0 
0.204563 -0.09961398 1.970312 0 0 0 
0.2062226 -0.09959986 1.969949 0 0 0 
0.2079456 -0.09961628 1.97019 0 0 0 
0.2095752 -0.09958813 1.969548 0 0 0 
0.2112788 -0.09959529 1.969604 0 0 0 
0.2129166 -0.09957156 1.969049 0 0 0 
0.2145883 -0.09956393 1.968811 0 0 0 
0.2163009 -0.09957524 1.968947 0 0 0 
0.2179638 -0.09956371 1.96863 0 0 0 
0.2196262 -0.09955209 1.968312 0 0 0 
0.2212271 -0.09951301 1.967449 0 0 0 
0.2229621 -0.09953438 1.967781 0 0 0 
0.2246278 -0.09952475 1.9675 0 0 0 
0.2262709 -0.09950531 1.967024 0 0 0 
0.2279142 -0.09948624 1.966554 0 0 0 
0.2296411 -0.09950367 1.966806 0 0 0 
0.2312966 -0.09949017 1.966445 0 0 0 
0.2329772 -0.09948756 1.966299 0 0 0 
0.2346496 -0.09948152 1.966085 0 0 0 
0.2363464 -0.09948583 1.966074 0 0 0 
0.2380843 -0.09950727 1.966401 0 0 0 
0.2397824 -0.09951188 1.966395 0 0 0 
0.2416459 -0.09958459 1.967734 0 0 0 
0.2434235 -0.09962115 1.968358 0 0 0 
0.2451328 -0.09962944 1.968422 0 0 0 
0.2468946 -0.09965884 1.968903 0 0 0 
-0.4895617 -0.1118 2.22959 0 0 0 
-0.4875101 -0.1117716 2.229222 0 0 0 
-0.4855281 -0.1117589 2.229168 0 0 0 
-0.4835248 -0.1117413 2.229013 0 0 0 
-0.4815314 -0.1117258 2.2289 0 0 0 
-0.4795355 -0.1117096 2.228773 0 0 0 
-0.4775402 -0.1116935 2.228645 0 0 0 
-0.4755154 -0.1116702 2.228375 0 0 0 
-0.4735318 -0.1116565 2.228295 0 0 0 
-0.4714688 -0.1116239 2.227836 0 0 0 
-0.4695234 -0.111619 2.227929 0 0 0 
-0.467497 -0.1115947 2.227635 0 0 0 
-0.4649226 -0.1114388 2.224714 0 0 0 
-0.4627214 -0.1113715 2.223559 0 0 0 
-0.4598684 -0.1111461 2.219246 0 0 0 
-0.457847 -0.1111206 2.218925 0 0 0 
-0.4558728 -0.1111065 2.218828 0 0 0 
-0.4539199 -0.1110974 2.218832 0 0 0 
-0.4518628 -0.1110626 2.218322 0 0 0 
-0.4498998 -0.1110508 2.21827 0 0 0 
-0.4479402 -0.1110397 2.218231 0 0 0 
-0.44596 -0.1110234 2.218088 0 0 0 
-0.4435559 -0.110901 2.215824 0 0 0 
-0.4415963 -0.1108891 2.215767 0 0 0 
-0.4396836 -0.1108889 2.215944 0 0 0 
-0.4377401 -0.110881 2.215964 0 0 0 
-0.4356609 -0.1108385 2.215292 0 0 0 
-0.4336647 -0.1108168 2.215036 0 0 0 
-0.431725 -0.1108094 2.215065 0 0 0 
-0.4298235 -0.1108117 2.215288 0 0 0 
-0.4277658 -0.1107737 2.214704 0 0 0 
-0.4257104 -0.1107359 2.214123 0 0 0 
-0.4237438 -0.110721 2.213998 0 0 0 
-0.4216974 -0.110685 2.213451 0 0 0 
-0.419683 -0.1106571 2.213065 0 0 0 
-0.4176463 -0.1106231 2.212556 0 0 0 
-0.4157736 -0.1106324 2.212913 0 0 0 
-0.4138063 -0.1106165 2.212764 0 0 0 
-0.411722 -0.110569 2.211983 0 0 0 
-0.4097773 -0.1105588 2.211946 0 0 0 
-0.4077103 -0.1105153 2.211243 0 0 0 
-0.4057339 -0.110496 2.211024 0 0 0 
-0.4036378 -0.1104439 2.210146 0 0 0 
-0.4017302 -0.110443 2.210294 0 0 0 
-0.3997109 -0.1104113 2.209824 0 0 0 
-0.3977364 -0.1103918 2.209596 0 0 0 
-0.3957485 -0.1103683 2.209289 0 0 0 
-0.3938007 -0.1103558 2.209201 0 0 0 
-0.3918406 -0.1103397 2.20904 0 0 0 
-0.3898527 -0.1103157 2.208718 0 0 0 
-0.3879144 -0.1103055 2.208673 0 0 0 
-0.3859649 -0.110292 2.208562 0 0 0 
-0.3839966 -0.1102729 2.208338 0 0 0 
-0.3819962 -0.1102444 2.207924 0 0 0 
-0.3800499 -0.1102313 2.207819 0 0 0 
-0.378019 -0.1101934 2.207216 0 0 0 
-0.3759984 -0.1101582 2.206664 0 0 0 
-0.3740503 -0.110144 2.206533 0 0 0 
-0.3720138 -0.1101034 2.205874 0 0 0 
-0.3699256 -0.1100471 2.204897 0 0 0 
-0.3679541 -0.110025 2.204607 0 0 0 
-0.3662097 -0.110071 2.20568 0 0 0 
-0.3642676 -0.1100578 2.205564 0 0 0 
-0.3620616 -0.1099643 2.203839 0 0 0 
-0.3601358 -0.1099553 2.203808 0 0 0 
-0.3581243 -0.1099199 2.203246 0 0 0 
-0.3561884 -0.1099075 2.203144 0 0 0 
-0.3541798 -0.1098724 2.202586 0 0 0 
-0.3522116 -0.1098495 2.202273 0 0 0 
-0.3501977 -0.109812 2.201666 0 0 0 
-0.348297 -0.1098099 2.201767 0 0 0 
-0.3463791 -0.1098022 2.201756 0 0 0 
-0.344456 -0.1097928 2.20171 0 0 0 
-0.3425184 -0.1097787 2.201568 0 0 0 
-0.3404857 -0.1097337 2.200807 0 0 0 
-0.3385157 -0.1097086 2.200444 0 0 0 
-0.3366514 -0.1097177 2.200764 0 0 0 
-0.3346451 -0.1096803 2.200152 0 0 0 
-0.3327217 -0.1096698 2.200079 0 0 0 
-0.3307067 -0.1096288 2.199394 0 0 0 
-0.32877 -0.1096135 2.199222 0 0 0 
-0.326808 -0.1095895 2.198876 0 0 0 
-0.3248241 -0.1095578 2.198374 0 0 0 
-0.3228733 -0.1095371 2.198091 0 0 0 
-0.3209485 -0.1095249 2.197979 0 0 0 
-0.3190672 -0.1095275 2.198164 0 0 0 
-0.3170623 -0.1094875 2.197492 0 0 0 
-0.3151125 -0.1094661 2.197193 0 0 0 
-0.3131963 -0.1094562 2.197125 0 0 0 
-0.3112368 -0.109431 2.196747 0 0 0 
-0.3092636 -0.1094007 2.196266 0 0 0 
-0.3072731 -0.1093637 2.195652 0 0 0 
-0.3053508 -0.1093508 2.195519 0 0 0 
-0.3033907 -0.1093241 2.195108 0 0 0 
-0.3014246 -0.1092949 2.194646 0 0 0 
-0.2995001 -0.1092805 2.194481 0 0 0 
-0.297582 -0.1092682 2.194358 0 0 0 
-0.2956764 -0.1092604 2.194324 0 0 0 
-0.2936896 -0.1092224 2.193682 0 0 0 
-0.2917023 -0.1091837 2.193025 0 0 0 
-0.2897813 -0.1091694 2.192858 0 0 0 
-0.287806 -0.1091343 2.192273 0 0 0 
-0.285907 -0.109128 2.192264 0 0 0 
-0.2839122 -0.1090846 2.191512 0 0 0 
-0.2819982 -0.1090721 2.191376 0 0 0 
-0.280131 -0.1090775 2.191602 0 0 0 
-0.2781354 -0.1090327 2.190817 0 0 0 
-0.2761605 -0.1089955 2.190183 0 0 0 
-0.2742761 -0.1089937 2.190261 0 0 0 
-0.2723789 -0.1089867 2.190235 0 0 0 
-0.2704425 -0.1089639 2.189889 0 0 0 
-0.2685228 -0.1089476 2.189672 0 0 0 
-0.2665448 -0.1089072 2.18897 0 0 0 
-0.2646946 -0.1089188 2.189313 0 0 0 
-0.2626664 -0.1088567 2.188176 0 0 0 
-0.2608322 -0.1088749 2.188648 0 0 0 
-0.2588412 -0.1088273 2.187799 0 0 0 
-0.2568963 -0.1087985 2.187328 0 0 0 
-0.2550169 -0.1087973 2.18741 0 0 0 
-0.2530999 -0.1087799 2.187166 0 0 0 
-0.251212 -0.1087748 2.187168 0 0 0 
-0.2492353 -0.108731 2.186389 0 0 0 
-0.2473164 -0.1087119 2.186108 0 0 0 
-0.2454053 -0.1086959 2.18589 0 0 0 
-0.2435328 -0.1086969 2.186012 0 0 0 
-0.2416002 -0.1086709 2.18559 0 0 0 
-0.239633 -0.1086288 2.184843 0 0 0 
-0.2377226 -0.108612 2.184603 0 0 0 
-0.2357965 -0.1085878 2.184214 0 0 0 
-0.2338618 -0.1085591 2.183734 0 0 0 
-0.2319608 -0.1085457 2.183562 0 0 0 
-0.2300355 -0.1085207 2.183155 0 0 0 
-0.2281228 -0.1085012 2.182858 0 0 0 
-0.2262072 -0.1084801 2.182527 0 0 0 
-0.2243161 -0.1084704 2.182426 0 0 0 
-0.2224063 -0.1084515 2.182137 0 0 0 
-0.2204788 -0.1084235 2.181666 0 0 0 
-0.2185893 -0.1084139 2.181564 0 0 0 
-0.2166674 -0.1083879 2.181132 0 0 0 
-0.214755 -0.1083663 2.180786 0 0 0 
-0.2128469 -0.1083465 2.180476 0 0 0 
-0.2109593 -0.1083368 2.18037 0 0 0 
-0.2090845 -0.1083336 2.180393 0 0 0 
-0.2071832 -0.1083165 2.180135 0 0 0 
-0.2053001 -0.1083087 2.180063 0 0 0 
-0.2033534 -0.1082669 2.179308 0 0 0 
-0.2014057 -0.1082238 2.178524 0 0 0 
-0.1995868 -0.1082497 2.179129 0 0 0 
-0.1975751 -0.1081705 2.177619 0 0 0 
-0.1957461 -0.1081909 2.17811 0 0 0 
-0.1938794 -0.1081906 2.178186 0 0 0 
-0.191903 -0.1081285 2.177015 0 0 0 
-0.1900131 -0.1081143 2.17681 0 0 0 
-0.1881138 -0.1080946 2.17649 0 0 0 
-0.1862117 -0.1080727 2.176129 0 0 0 
-0.184324 -0.1080589 2.175928 0 0 0 
-0.18249 -0.1080766 2.17636 0 0 0 
-0.1806027 -0.1080628 2.176159 0 0 0 
-0.1787643 -0.1080782 2.176544 0 0 0 
-0.1768405 -0.1080419 2.175886 0 0 0 
-0.1748713 -0.1079767 2.174646 0 0 0 
-0.1730381 -0.107995 2.175087 0 0 0 
-0.1711084 -0.1079527 2.174308 0 0 0 
-0.1692238 -0.1079383 2.174089 0 0 0 
-0.1673795 -0.1079497 2.174388 0 0 0 
-0.1654951 -0.1079351 2.174163 0 0 0 
-0.1636231 -0.1079283 2.174096 0 0 0 
-0.1619014 -0.1080217 2.176045 0 0 0 
-0.1601981 -0.1081297 2.178288 0 0 0 
-0.1583227 -0.1081227 2.178213 0 0 0 
-0.1564474 -0.1081155 2.178135 0 0 0 
-0.1545553 -0.1080965 2.177817 0 0 0 
-0.1526686 -0.1080809 2.177566 0 0 0 
-0.1507869 -0.1080684 2.177378 0 0 0 
-0.148898 -0.1080504 2.177078 0 0 0 
-0.146973 -0.1080054 2.176234 0 0 0 
-0.1451367 -0.1080253 2.176696 0 0 0 
-0.143227 -0.1079904 2.176052 0 0 0 
-0.1413568 -0.1079847 2.175997 0 0 0 
-0.1394586 -0.1079571 2.1755 0 0 0 
-0.1375704 -0.1079367 2.175147 0 0 0 
-0.1357066 -0.1079352 2.175174 0 0 0 
-0.1338311 -0.1079241 2.175007 0 0 0 
-0.1319683 -0.1079231 2.175043 0 0 0 
-0.1301121 -0.1079277 2.175189 0 0 0 
-0.128502 -0.1081394 2.17951 0 0 0 
0.06483951 -0.09863147 1.989126 0 0 0 
0.0666007 -0.09872025 1.99089 0 0 0 
0.06830801 -0.09872672 1.990994 0 0 0 
0.07000417 -0.09871717 1.990773 0 0 0 
0.07170948 -0.09872066 1.990815 0 0 0 
0.07341836 -0.09872882 1.990951 0 0 0 
0.07511748 -0.09872375 1.990819 0 0 0 
0.07680096 -0.09869882 1.990286 0 0 0 
0.0784863 -0.09867733 1.989821 0 0 0 
0.08017159 -0.09865666 1.989372 0 0 0 
0.08186551 -0.09864727 1.98915 0 0 0 
0.0835687 -0.0986492 1.989156 0 0 0 
0.08527084 -0.09864985 1.989135 0 0 0 
0.08695465 -0.0986297 1.988694 0 0 0 
0.08864344 -0.09861583 1.988379 0 0 0 
0.0903222 -0.09859156 1.987853 0 0 0 
0.09201861 -0.0985871 1.987727 0 0 0 
0.09371733 -0.09858523 1.987651 0 0 0 
0.09541687 -0.09858427 1.987594 0 0 0 
0.09710957 -0.0985764 1.987396 0 0 0 
0.09878792 -0.09855448 1.986915 0 0 0 
0.1004673 -0.09853438 1.986469 0 0 0 
0.1021656 -0.09853315 1.986404 0 0 0 
0.1038596 -0.09852782 1.986254 0 0 0 
0.1055477 -0.09851722 1.985998 0 0 0 
0.107248 -0.09851816 1.985974 0 0 0 
0.1089459 -0.09851694 1.985906 0 0 0 
0.110593 -0.09847046 1.984924 0 0 0 
0.1122852 -0.09846502 1.98477 0 0 0 
0.113997 -0.09847663 1.984958 0 0 0 
0.1156882 -0.09847035 1.984785 0 0 0 
0.1173626 -0.09845018 1.984331 0 0 0 
0.1190355 -0.09842927 1.983862 0 0 0 
0.120715 -0.09841443 1.983514 0 0 0 
0.122391 -0.09839716 1.983117 0 0 0 
0.1240865 -0.09839585 1.98304 0 0 0 
0.1257908 -0.0984014 1.983101 0 0 0 
0.1274789 -0.09839442 1.982909 0 0 0 
0.1291405 -0.0983673 1.982311 0 0 0 
0.1308082 -0.09834559 1.98182 0 0 0 
0.1325033 -0.09834465 1.981748 0 0 0 
0.1341903 -0.0983379 1.981558 0 0 0 
0.1358941 -0.09834345 1.981615 0 0 0 
0.1375512 -0.09831547 1.980996 0 0 0 
0.1392299 -0.09830347 1.980698 0 0 0 
0.1409016 -0.09828684 1.980306 0 0 0 
0.1425731 -0.09827046 1.979918 0 0 0 
0.1442534 -0.09826047 1.979658 0 0 0 
0.1459841 -0.09828466 1.980087 0 0 0 
0.1476484 -0.09826409 1.979613 0 0 0 
0.1493027 -0.09823742 1.979015 0 0 0 
0.1509785 -0.09822533 1.978711 0 0 0 
0.152671 -0.09822427 1.978628 0 0 0 
0.1543832 -0.09823576 1.978797 0 0 0 
0.1560525 -0.09821995 1.978415 0 0 0 
0.1577194 -0.09820306 1.978011 0 0 0 
0.1593813 -0.09818347 1.977552 0 0 0 
0.1610437 -0.09816454 1.977105 0 0 0 
0.1627484 -0.09817154 1.97718 0 0 0 
0.1644511 -0.09817719 1.977228 0 0 0 
0.1661064 -0.09815477 1.976709 0 0 0 
0.1677549 -0.09812877 1.976117 0 0 0 
0.1694167 -0.098111 1.975691 0 0 0 
0.1710763 -0.09809235 1.975246 0 0 0 
0.1728239 -0.098124 1.975814 0 0 0 
0.1744898 -0.0981091 1.975443 0 0 0 
0.1761454 -0.09808876 1.974962 0 0 0 
0.177794 -0.09806498 1.974411 0 0 0 
0.179461 -0.09805169 1.974071 0 0 0 
0.1811706 -0.09806169 1.974199 0 0 0 
0.1828792 -0.09807099 1.974312 0 0 0 
0.1845253 -0.0980469 1.973752 0 0 0 
0.1861654 -0.09802009 1.973137 0 0 0 
0.1878508 -0.09801739 1.973007 0 0 0 
0.1895206 -0.09800668 1.972714 0 0 0 
0.1912303 -0.0980166 1.972837 0 0 0 
0.1928849 -0.09799838 1.972392 0 0 0 
0.1945287 -0.09797505 1.971843 0 0 0 
0.1962017 -0.09796667 1.971595 0 0 0 
0.1978796 -0.0979609 1.971399 0 0 0 
0.1995857 -0.09796903 1.971482 0 0 0 
0.2012465 -0.097955 1.971118 0 0 0 
0.2028923 -0.09793393 1.970611 0 0 0 
0.2045506 -0.09791924 1.970233 0 0 0 
0.206277 -0.09793713 1.970509 0 0 0 
0.2079072 -0.09790938 1.969867 0 0 0 
0.2096081 -0.09791513 1.969897 0 0 0 
0.2112492 -0.09789307 1.969368 0 0 0 
0.2129144 -0.09788247 1.969068 0 0 0 
0.2146253 -0.09789284 1.96919 0 0 0 
0.2162925 -0.09788331 1.968911 0 0 0 
0.2179543 -0.0978715 1.968585 0 0 0 
0.2196138 -0.09785885 1.968241 0 0 0 
0.2212377 -0.09783065 1.967584 0 0 0 
0.2229495 -0.09784146 1.967711 0 0 0 
0.2246384 -0.0978421 1.967633 0 0 0 
0.2262625 -0.09781474 1.966991 0 0 0 
0.2278991 -0.09779312 1.966464 0 0 0 
0.2295987 -0.09779873 1.966483 0 0 0 
0.2312949 -0.09780274 1.96647 0 0 0 
0.2329658 -0.09779612 1.966243 0 0 0 
0.2346646 -0.09780122 1.96625 0 0 0 
0.2363452 -0.09779871 1.966104 0 0 0 
0.2380693 -0.09781413 1.966317 0 0 0 
0.2397717 -0.09782045 1.966347 0 0 0 
0.2416494 -0.09789773 1.967803 0 0 0 
0.243407 -0.09792563 1.968265 0 0 0 
0.2451331 -0.09794054 1.968465 0 0 0 
0.2468946 -0.09796928 1.968943 0 0 0 
0.2488009 -0.09805473 1.970559 0 0 0 
-0.489558 -0.1098714 2.229618 0 0 0 
-0.4875196 -0.1098464 2.229311 0 0 0 
-0.485511 -0.109828 2.229135 0 0 0 
-0.4835453 -0.1098192 2.229153 0 0 0 
-0.4815237 -0.1097975 2.22891 0 0 0 
-0.4795273 -0.1097815 2.22878 0 0 0 
-0.4775215 -0.1097632 2.228603 0 0 0 
-0.4755318 -0.1097484 2.228497 0 0 0 
-0.4735208 -0.1097286 2.228288 0 0 0 
-0.4714717 -0.1096998 2.227895 0 0 0 
-0.4694954 -0.1096877 2.227841 0 0 0 
-0.4674772 -0.1096658 2.227586 0 0 0 
-0.4648449 -0.1094989 2.224387 0 0 0 
-0.4627617 -0.1094606 2.223797 0 0 0 
-0.4598621 -0.1092281 2.219261 0 0 0 
-0.4579197 -0.1092219 2.219322 0 0 0 
-0.4558652 -0.1091888 2.218836 0 0 0 
-0.4538902 -0.1091745 2.218732 0 0 0 
-0.4519163 -0.1091604 2.21863 0 0 0 
-0.4498463 -0.1091229 2.218051 0 0 0 
-0.4479146 -0.1091187 2.218149 0 0 0 
-0.4458841 -0.1090904 2.217756 0 0 0 
-0.4435146 -0.1089785 2.215662 0 0 0 
-0.441655 -0.1089914 2.216106 0 0 0 
-0.439646 -0.1089675 2.215799 0 0 0 
-0.4378338 -0.1089923 2.216483 0 0 0 
-0.435701 -0.1089372 2.215541 0 0 0 
-0.433674 -0.1089082 2.215128 0 0 0 
-0.4317551 -0.1089062 2.215264 0 0 0 
-0.4297638 -0.1088858 2.215026 0 0 0 
-0.4276892 -0.1088441 2.214352 0 0 0 
-0.4257273 -0.1088308 2.214256 0 0 0 
-0.4237208 -0.1088059 2.213923 0 0 0 
-0.4217376 -0.1087868 2.213707 0 0 0 
-0.4195798 -0.1087222 2.212566 0 0 0 
-0.4177785 -0.1087499 2.213301 0 0 0 
-0.4157922 -0.1087295 2.213056 0 0 0 
-0.4138194 -0.1087125 2.212879 0 0 0 
-0.4118047 -0.1086842 2.212472 0 0 0 
-0.4096873 -0.1086284 2.211505 0 0 0 
-0.4077063 -0.1086085 2.211266 0 0 0 
-0.4057008 -0.1085818 2.210889 0 0 0 
-0.4036491 -0.1085424 2.210253 0 0 0 
-0.4016909 -0.1085279 2.210123 0 0 0 
-0.399715 -0.1085085 2.209892 0 0 0 
-0.3977374 -0.1084884 2.209646 0 0 0 
-0.3957568 -0.1084673 2.209379 0 0 0 
-0.3938003 -0.1084527 2.209243 0 0 0 
-0.3918233 -0.1084322 2.208987 0 0 0 
-0.3898558 -0.1084142 2.208781 0 0 0 
-0.3879055 -0.1084008 2.208668 0 0 0 
-0.3859378 -0.1083824 2.208451 0 0 0 
-0.3840294 -0.1083806 2.208571 0 0 0 
-0.382065 -0.1083628 2.208367 0 0 0 
-0.3800023 -0.1083169 2.207587 0 0 0 
-0.3780229 -0.1082944 2.207283 0 0 0 
-0.375953 -0.1082455 2.206443 0 0 0 
-0.3739837 -0.1082254 2.206185 0 0 0 
-0.3717847 -0.1081381 2.204561 0 0 0 
-0.3699344 -0.1081519 2.204994 0 0 0 
-0.3679937 -0.1081393 2.204889 0 0 0 
-0.3661787 -0.1081638 2.205538 0 0 0 
-0.3642304 -0.1081489 2.205384 0 0 0 
-0.3621361 -0.1080902 2.204337 0 0 0 
-0.3600955 -0.1080471 2.203606 0 0 0 
-0.3581488 -0.1080318 2.203442 0 0 0 
-0.3560908 -0.1079826 2.202585 0 0 0 
-0.3541863 -0.1079797 2.202672 0 0 0 
-0.3521707 -0.1079427 2.202062 0 0 0 
-0.3502009 -0.1079193 2.201731 0 0 0 
-0.3483105 -0.1079204 2.201897 0 0 0 
-0.3463674 -0.1079051 2.201727 0 0 0 
-0.3444735 -0.107905 2.201867 0 0 0 
-0.3425056 -0.1078816 2.201531 0 0 0 
-0.3404529 -0.107831 2.20064 0 0 0 
-0.3385561 -0.1078296 2.20075 0 0 0 
-0.3365897 -0.1078059 2.200405 0 0 0 
-0.33461 -0.1077776 2.199966 0 0 0 
-0.3326884 -0.1077678 2.199904 0 0 0 
-0.3306723 -0.1077271 2.19921 0 0 0 
-0.3287482 -0.1077161 2.199121 0 0 0 
-0.3267808 -0.1076907 2.198737 0 0 0 
-0.3247684 -0.1076501 2.198042 0 0 0 
-0.3229327 -0.1076679 2.19854 0 0 0 
-0.3209514 -0.1076371 2.198044 0 0 0 
-0.3190357 -0.1076281 2.197992 0 0 0 
-0.3170564 -0.1075974 2.197495 0 0 0 
-0.3151171 -0.10758 2.19727 0 0 0 
-0.3131606 -0.1075564 2.196919 0 0 0 
-0.311176 -0.1075229 2.196363 0 0 0 
-0.3092092 -0.1074951 2.195924 0 0 0 
-0.3072769 -0.1074791 2.195724 0 0 0 
-0.3052989 -0.1074468 2.19519 0 0 0 
-0.3033644 -0.1074295 2.194963 0 0 0 
-0.3014292 -0.1074118 2.194725 0 0 0 
-0.2994856 -0.1073907 2.194419 0 0 0 
-0.2974938 -0.1073521 2.193753 0 0 0 
-0.2955749 -0.1073394 2.193616 0 0 0 
-0.2937271 -0.1073525 2.194006 0 0 0 
-0.2917253 -0.1073092 2.193242 0 0 0 
-0.2897164 -0.1072627 2.192412 0 0 0 
-0.287826 -0.1072597 2.19247 0 0 0 
-0.2858549 -0.1072265 2.191909 0 0 0 
-0.2839094 -0.1072024 2.191535 0 0 0 
-0.2820014 -0.1071923 2.191445 0 0 0 
-0.2800833 -0.1071782 2.191273 0 0 0 
-0.2781116 -0.1071433 2.190674 0 0 0 
-0.2761755 -0.1071216 2.190346 0 0 0 
-0.2743118 -0.107128 2.190591 0 0 0 
-0.272397 -0.1071143 2.190425 0 0 0 
-0.2704566 -0.1070904 2.190047 0 0 0 
-0.2685297 -0.1070715 2.189773 0 0 0 
-0.2665606 -0.1070354 2.189144 0 0 0 
-0.2646233 -0.1070116 2.188768 0 0 0 
-0.2627222 -0.1070022 2.188686 0 0 0 
-0.2607681 -0.106971 2.188155 0 0 0 
-0.258808 -0.1069368 2.187563 0 0 0 
-0.2568949 -0.1069217 2.187361 0 0 0 
-0.2550067 -0.1069168 2.187367 0 0 0 
-0.253085 -0.1068977 2.187081 0 0 0 
-0.2512312 -0.1069072 2.18738 0 0 0 
-0.2492296 -0.1068534 2.186384 0 0 0 
-0.2472527 -0.1068096 2.18559 0 0 0 
-0.2454092 -0.1068231 2.185969 0 0 0 
-0.2435357 -0.1068237 2.186082 0 0 0 
-0.2415474 -0.1067735 2.185156 0 0 0 
-0.2396071 -0.106744 2.184651 0 0 0 
-0.2376951 -0.1067267 2.184396 0 0 0 
-0.2357419 -0.1066904 2.183753 0 0 0 
-0.2338546 -0.1066837 2.183712 0 0 0 
-0.2319266 -0.1066581 2.183285 0 0 0 
-0.2300277 -0.1066456 2.183125 0 0 0 
-0.2281369 -0.1066367 2.183038 0 0 0 
-0.2262245 -0.1066174 2.182738 0 0 0 
-0.2242989 -0.1065916 2.182303 0 0 0 
-0.2224004 -0.1065783 2.182124 0 0 0 
-0.2204842 -0.1065563 2.181765 0 0 0 
-0.2185631 -0.1065315 2.181348 0 0 0 
-0.2166646 -0.1065173 2.181148 0 0 0 
-0.2147517 -0.1064958 2.180797 0 0 0 
-0.2128393 -0.1064741 2.180442 0 0 0 
-0.2109547 -0.1064661 2.180367 0 0 0 
-0.2090242 -0.1064346 2.179809 0 0 0 
-0.2071444 -0.1064286 2.179772 0 0 0 
-0.2052938 -0.1064376 2.180042 0 0 0 
-0.2033974 -0.1064228 2.179823 0 0 0 
-0.2014523 -0.106382 2.179073 0 0 0 
-0.1995199 -0.1063472 2.178443 0 0 0 
-0.1976278 -0.1063334 2.178244 0 0 0 
-0.1956977 -0.1062988 2.177616 0 0 0 
-0.1938239 -0.1062944 2.177607 0 0 0 
-0.1918987 -0.1062614 2.177011 0 0 0 
-0.1900392 -0.1062644 2.177154 0 0 0 
-0.1881422 -0.1062465 2.176864 0 0 0 
-0.1862177 -0.1062124 2.176243 0 0 0 
-0.1842879 -0.1061746 2.175546 0 0 0 
-0.1824642 -0.1061977 2.176097 0 0 0 
-0.1806031 -0.1061994 2.176207 0 0 0 
-0.1787397 -0.1061997 2.176289 0 0 0 
-0.1768606 -0.1061907 2.176178 0 0 0 
-0.1749424 -0.1061577 2.175575 0 0 0 
-0.1730192 -0.1061209 2.174893 0 0 0 
-0.1711149 -0.106095 2.174435 0 0 0 
-0.1692346 -0.1060837 2.174273 0 0 0 
-0.1673561 -0.1060732 2.174129 0 0 0 
-0.1654893 -0.10607 2.174132 0 0 0 
-0.1636238 -0.1060675 2.17415 0 0 0 
-0.1618041 -0.106095 2.174782 0 0 0 
-0.1601906 -0.1062599 2.178231 0 0 0 
-0.1583129 -0.1062515 2.178124 0 0 0 
-0.1564453 -0.1062497 2.178152 0 0 0 
-0.1545494 -0.1062283 2.177779 0 0 0 
-0.1526688 -0.1062171 2.177614 0 0 0 
-0.150785 -0.1062034 2.177396 0 0 0 
-0.1488772 -0.1061722 2.176819 0 0 0 
-0.1469908 -0.1061557 2.176542 0 0 0 
-0.1451037 -0.1061382 2.176245 0 0 0 
-0.1432526 -0.106147 2.176486 0 0 0 
-0.1413325 -0.1061042 2.175668 0 0 0 
-0.1394327 -0.1060757 2.175142 0 0 0 
-0.1375823 -0.1060845 2.175381 0 0 0 
-0.1356899 -0.1060607 2.17495 0 0 0 
-0.1338275 -0.1060601 2.174994 0 0 0 
-0.1319622 -0.1060571 2.174988 0 0 0 
-0.1301347 -0.1060848 2.175612 0 0 0 
-0.1285032 -0.1062754 2.179576 0 0 0 
0.06484663 -0.09694103 1.989383 0 0 0 
0.06659814 -0.09701391 1.990853 0 0 0 
0.06830578 -0.09702083 1.990968 0 0 0 
0.07000518 -0.09701601 1.990841 0 0 0 
0.07171021 -0.09701904 1.990875 0 0 0 
0.07341272 -0.0970186 1.990837 0 0 0 
0.07511368 -0.09701619 1.990757 0 0 0 
0.07679511 -0.0969892 1.990173 0 0 0 
0.07848185 -0.09696997 1.989747 0 0 0 
0.08016585 -0.09694822 1.989269 0 0 0 
0.08186704 -0.09694774 1.989227 0 0 0 
0.08357019 -0.09694956 1.989231 0 0 0 
0.08526781 -0.09694503 1.989104 0 0 0 
0.08696026 -0.0969349 1.988861 0 0 0 
0.08864231 -0.09691381 1.988393 0 0 0 
0.09032565 -0.0968949 1.987969 0 0 0 
0.09201787 -0.09688602 1.98775 0 0 0 
0.09372277 -0.09689058 1.987806 0 0 0 
0.09541765 -0.09688482 1.987649 0 0 0 
0.09711233 -0.09687905 1.987492 0 0 0 
0.09878331 -0.09685025 1.986862 0 0 0 
0.1004737 -0.0968411 1.986634 0 0 0 
0.1021625 -0.09683085 1.986383 0 0 0 
0.1038538 -0.09682318 1.986184 0 0 0 
0.105556 -0.09682579 1.986195 0 0 0 
0.1072409 -0.09681267 1.985882 0 0 0 
0.1089216 -0.09679627 1.985502 0 0 0 
0.1105973 -0.09677599 1.985042 0 0 0 
0.1122869 -0.09676824 1.984838 0 0 0 
0.1139705 -0.09675572 1.984535 0 0 0 
0.1156773 -0.09676299 1.984638 0 0 0 
0.1173757 -0.09676308 1.984592 0 0 0 
0.1190515 -0.09674472 1.984168 0 0 0 
0.1207086 -0.09671199 1.983448 0 0 0 
0.1223913 -0.09670045 1.983162 0 0 0 
0.1240813 -0.09669484 1.982997 0 0 0 
0.1257833 -0.09669863 1.983024 0 0 0 
0.1274577 -0.09668134 1.982618 0 0 0 
0.1291555 -0.09668209 1.982581 0 0 0 
0.1308199 -0.09665808 1.982036 0 0 0 
0.1324765 -0.09662903 1.981387 0 0 0 
0.1341899 -0.09664165 1.981592 0 0 0 
0.1358848 -0.09664074 1.981518 0 0 0 
0.1375671 -0.09663104 1.981264 0 0 0 
0.1392319 -0.09660947 1.980765 0 0 0 
0.1409031 -0.09659272 1.980365 0 0 0 
0.1425758 -0.0965775 1.979995 0 0 0 
0.1442871 -0.09658838 1.98016 0 0 0 
0.1459861 -0.09659091 1.980153 0 0 0 
0.1476372 -0.09656204 1.979501 0 0 0 
0.1493073 -0.09654617 1.979116 0 0 0 
0.1509759 -0.09652968 1.978716 0 0 0 
0.1526345 -0.09650715 1.978193 0 0 0 
0.1543579 -0.09652574 1.978512 0 0 0 
0.1560361 -0.09651595 1.978248 0 0 0 
0.157721 -0.09651041 1.97807 0 0 0 
0.1593689 -0.09648266 1.977437 0 0 0 
0.1610489 -0.09647467 1.977208 0 0 0 
0.1627356 -0.09647085 1.977064 0 0 0 
0.1644532 -0.09648526 1.977293 0 0 0 
0.166116 -0.09646753 1.976862 0 0 0 
0.1677556 -0.09643684 1.976165 0 0 0 
0.1694346 -0.09642918 1.97594 0 0 0 
0.1711132 -0.09642139 1.975711 0 0 0 
0.1728053 -0.09642137 1.975641 0 0 0 
0.174468 -0.09640506 1.975236 0 0 0 
0.1761409 -0.09639467 1.974952 0 0 0 
0.1777861 -0.09636945 1.974363 0 0 0 
0.1794603 -0.09636031 1.974103 0 0 0 
0.1811783 -0.09637462 1.974322 0 0 0 
0.182859 -0.09636897 1.974133 0 0 0 
0.1845105 -0.09634823 1.973633 0 0 0 
0.1861627 -0.09632824 1.973148 0 0 0 
0.1878382 -0.09632055 1.972914 0 0 0 
0.1895292 -0.09632082 1.972843 0 0 0 
0.1912245 -0.09632333 1.972817 0 0 0 
0.1928815 -0.09630663 1.972397 0 0 0 
0.1945252 -0.09628364 1.971847 0 0 0 
0.196181 -0.09626697 1.971426 0 0 0 
0.197899 -0.09628089 1.971631 0 0 0 
0.1995732 -0.09627343 1.971397 0 0 0 
0.2012599 -0.09627207 1.971288 0 0 0 
0.2028777 -0.09623807 1.97051 0 0 0 
0.2045462 -0.09622847 1.97023 0 0 0 
0.2062604 -0.09624035 1.970389 0 0 0 
0.207916 -0.09622492 1.969989 0 0 0 
0.2095921 -0.09621917 1.969787 0 0 0 
0.2112352 -0.09619848 1.969277 0 0 0 
0.2129268 -0.09620001 1.969222 0 0 0 
0.2145901 -0.09618887 1.968907 0 0 0 
0.2162816 -0.09619041 1.968851 0 0 0 
0.2179306 -0.09617317 1.96841 0 0 0 
0.2195549 -0.09614539 1.967752 0 0 0 
0.2212182 -0.09613501 1.96745 0 0 0 
0.2228998 -0.09613265 1.967311 0 0 0 
0.2246118 -0.09614333 1.967439 0 0 0 
0.2262606 -0.09612703 1.967014 0 0 0 
0.2279212 -0.09611594 1.966694 0 0 0 
0.2295453 -0.09608977 1.966065 0 0 0 
0.2312788 -0.0961094 1.966373 0 0 0 
0.2329585 -0.09610657 1.966221 0 0 0 
0.2346358 -0.09610279 1.966048 0 0 0 
0.2363309 -0.09610634 1.966025 0 0 0 
0.2380485 -0.09611886 1.966185 0 0 0 
0.2397859 -0.09613921 1.966504 0 0 0 
0.2415813 -0.09618233 1.967288 0 0 0 
0.2433787 -0.09622564 1.968075 0 0 0 
0.2451327 -0.09625134 1.968501 0 0 0 
0.2468741 -0.09627178 1.968819 0 0 0 
-0.4895265 -0.1079367 2.229519 0 0 0 
-0.4875092 -0.1079168 2.229307 0 0 0 
-0.4855386 -0.1079071 2.229306 0 0 0 
-0.4835361 -0.1078903 2.229155 0 0 0 
-0.4815102 -0.107868 2.228892 0 0 0 
-0.4794954 -0.1078481 2.228676 0 0 0 
-0.4775384 -0.1078411 2.228726 0 0 0 
-0.4755074 -0.1078173 2.228427 0 0 0 
-0.4735039 -0.1077995 2.228253 0 0 0 
-0.4714791 -0.1077767 2.227974 0 0 0 
-0.4693835 -0.1077375 2.227355 0 0 0 
-0.4674291 -0.1077305 2.227401 0 0 0 
-0.4647686 -0.10756 2.224066 0 0 0 
-0.4627936 -0.1075474 2.223995 0 0 0 
-0.4598407 -0.1073066 2.219202 0 0 0 
-0.4578958 -0.1072998 2.21925 0 0 0 
-0.4558715 -0.1072744 2.21891 0 0 0 
-0.4539085 -0.1072633 2.218865 0 0 0 
-0.4518876 -0.1072383 2.218533 0 0 0 
-0.4499291 -0.1072279 2.218503 0 0 0 
-0.4477693 -0.1071693 2.217474 0 0 0 
-0.4457797 -0.1071512 2.21728 0 0 0 
-0.4435112 -0.1070655 2.215689 0 0 0 
-0.4416267 -0.1070722 2.216008 0 0 0 
-0.4396317 -0.1070521 2.215771 0 0 0 
-0.4378005 -0.1070718 2.216359 0 0 0 
-0.4356707 -0.1070183 2.215431 0 0 0 
-0.4336711 -0.1069966 2.215158 0 0 0 
-0.4317411 -0.1069918 2.215236 0 0 0 
-0.4297882 -0.1069813 2.215196 0 0 0 
-0.4276811 -0.1069322 2.214354 0 0 0 
-0.4256816 -0.1069097 2.214062 0 0 0 
-0.423728 -0.1068985 2.214005 0 0 0 
-0.4215674 -0.1068348 2.212857 0 0 0 
-0.4197342 -0.1068539 2.213424 0 0 0 
-0.4177137 -0.1068252 2.213002 0 0 0 
-0.4157863 -0.1068202 2.213069 0 0 0 
-0.4137135 -0.1067776 2.212357 0 0 0 
-0.4116746 -0.1067434 2.211817 0 0 0 
-0.4097106 -0.1067284 2.211675 0 0 0 
-0.4075745 -0.1066683 2.210595 0 0 0 
-0.4056403 -0.1066606 2.210603 0 0 0 
-0.4036579 -0.1066402 2.210345 0 0 0 
-0.40166 -0.1066154 2.209997 0 0 0 
-0.3996906 -0.106598 2.209801 0 0 0 
-0.397714 -0.1065786 2.209561 0 0 0 
-0.3957479 -0.1065617 2.209374 0 0 0 
-0.3937648 -0.1065401 2.209088 0 0 0 
-0.3918295 -0.1065313 2.209067 0 0 0 
-0.3898567 -0.1065122 2.20883 0 0 0 
-0.3878884 -0.1064941 2.208614 0 0 0 
-0.385933 -0.1064793 2.208468 0 0 0 
-0.3839861 -0.1064668 2.208367 0 0 0 
-0.3820805 -0.1064657 2.208501 0 0 0 
-0.3799845 -0.1064113 2.207528 0 0 0 
-0.3780594 -0.1064044 2.207541 0 0 0 
-0.3760169 -0.1063642 2.206862 0 0 0 
-0.3738633 -0.1062921 2.205518 0 0 0 
-0.3718225 -0.1062514 2.204829 0 0 0 
-0.3698966 -0.1062433 2.204813 0 0 0 
-0.3679263 -0.1062224 2.204529 0 0 0 
-0.3660665 -0.1062333 2.204906 0 0 0 
-0.3641981 -0.1062417 2.205232 0 0 0 
-0.3620667 -0.1061732 2.203959 0 0 0 
-0.3601114 -0.1061558 2.203747 0 0 0 
-0.3580945 -0.10612 2.203152 0 0 0 
-0.3561385 -0.106102 2.202924 0 0 0 
-0.3541867 -0.106085 2.202718 0 0 0 
-0.3521526 -0.1060431 2.201993 0 0 0 
-0.3502101 -0.1060285 2.201833 0 0 0 
-0.348305 -0.106025 2.201906 0 0 0 
-0.3463487 -0.1060059 2.201652 0 0 0 
-0.344469 -0.1060102 2.201882 0 0 0 
-0.3424563 -0.1059733 2.201258 0 0 0 
-0.3404872 -0.1059496 2.200906 0 0 0 
-0.3385503 -0.1059357 2.200758 0 0 0 
-0.3365587 -0.1059044 2.200247 0 0 0 
-0.33464 -0.1058959 2.200207 0 0 0 
-0.3326772 -0.1058732 2.199874 0 0 0 
-0.3307071 -0.1058479 2.199486 0 0 0 
-0.3287277 -0.1058194 2.199028 0 0 0 
-0.3267099 -0.1057781 2.198305 0 0 0 
-0.3248392 -0.1057842 2.198566 0 0 0 
-0.3229317 -0.1057783 2.198578 0 0 0 
-0.3208883 -0.1057276 2.197656 0 0 0 
-0.3190125 -0.1057318 2.197876 0 0 0 
-0.3170204 -0.1056973 2.19729 0 0 0 
-0.3150634 -0.1056742 2.196939 0 0 0 
-0.3131189 -0.105655 2.196671 0 0 0 
-0.3111484 -0.1056268 2.196212 0 0 0 
-0.3091949 -0.105604 2.195866 0 0 0 
-0.3072325 -0.1055779 2.195451 0 0 0 
-0.3052926 -0.1055592 2.195189 0 0 0 
-0.303278 -0.1055143 2.194381 0 0 0 
-0.3013866 -0.105512 2.194458 0 0 0 
-0.299455 -0.1054955 2.194239 0 0 0 
-0.2974907 -0.1054672 2.193773 0 0 0 
-0.2955739 -0.1054555 2.193652 0 0 0 
-0.2936438 -0.1054389 2.193429 0 0 0 
-0.2918116 -0.1054574 2.193935 0 0 0 
-0.2898242 -0.1054197 2.193271 0 0 0 
-0.2877998 -0.105368 2.192315 0 0 0 
-0.2858635 -0.105348 2.192019 0 0 0 
-0.2840029 -0.105356 2.192301 0 0 0 
-0.2819671 -0.1052985 2.191223 0 0 0 
-0.2800034 -0.1052675 2.190692 0 0 0 
-0.2780932 -0.1052562 2.190573 0 0 0 
-0.276195 -0.1052493 2.190545 0 0 0 
-0.2743437 -0.1052604 2.19089 0 0 0 
-0.2724242 -0.1052453 2.190688 0 0 0 
-0.2704452 -0.1052068 2.189999 0 0 0 
-0.2684753 -0.1051713 2.189372 0 0 0 
-0.2665488 -0.1051525 2.189091 0 0 0 
-0.2646338 -0.105138 2.188899 0 0 0 
-0.2627335 -0.1051291 2.188824 0 0 0 
-0.2608105 -0.1051109 2.188554 0 0 0 
-0.2587807 -0.1050492 2.187377 0 0 0 
-0.2569191 -0.1050553 2.187611 0 0 0 
-0.255037 -0.1050531 2.187671 0 0 0 
-0.2530771 -0.1050186 2.187057 0 0 0 
-0.2512248 -0.1050285 2.187368 0 0 0 
-0.2492652 -0.1049934 2.186741 0 0 0 
-0.2473637 -0.1049824 2.186615 0 0 0 
-0.2453968 -0.1049433 2.185902 0 0 0 
-0.243465 -0.1049187 2.185492 0 0 0 
-0.2415183 -0.1048872 2.184937 0 0 0 
-0.2395951 -0.1048656 2.184586 0 0 0 
-0.2376973 -0.1048548 2.18446 0 0 0 
-0.2358272 -0.1048561 2.184587 0 0 0 
-0.2338161 -0.1047943 2.183396 0 0 0 
-0.2319333 -0.1047895 2.183392 0 0 0 
-0.2300558 -0.104787 2.183435 0 0 0 
-0.2281363 -0.1047651 2.183076 0 0 0 
-0.2262329 -0.1047504 2.182863 0 0 0 
-0.2243209 -0.1047314 2.182561 0 0 0 
-0.2223891 -0.1047028 2.182057 0 0 0 
-0.2204761 -0.1046825 2.181728 0 0 0 
-0.2185648 -0.1046628 2.181408 0 0 0 
-0.2166685 -0.10465 2.181231 0 0 0 
-0.2147628 -0.1046324 2.180954 0 0 0 
-0.2128665 -0.1046191 2.180765 0 0 0 
-0.2109611 -0.104601 2.180476 0 0 0 
-0.2090559 -0.1045828 2.180183 0 0 0 
-0.2071361 -0.1045568 2.179728 0 0 0 
-0.2052301 -0.1045374 2.17941 0 0 0 
-0.2033844 -0.1045486 2.179728 0 0 0 
-0.2014798 -0.1045295 2.179414 0 0 0 
-0.1995789 -0.1045119 2.179131 0 0 0 
-0.1976196 -0.1044632 2.178198 0 0 0 
-0.1957099 -0.1044399 2.177795 0 0 0 
-0.1938445 -0.1044401 2.177881 0 0 0 
-0.191924 -0.1044104 2.177341 0 0 0 
-0.1900411 -0.1044008 2.17722 0 0 0 
-0.1881534 -0.1043882 2.177037 0 0 0 
-0.1862544 -0.1043691 2.176716 0 0 0 
-0.1843556 -0.1043497 2.176389 0 0 0 
-0.1824703 -0.1043377 2.176214 0 0 0 
-0.1806168 -0.1043437 2.176416 0 0 0 
-0.1787301 -0.1043305 2.176216 0 0 0 
-0.1768355 -0.1043124 2.175913 0 0 0 
-0.1749637 -0.1043075 2.175883 0 0 0 
-0.1730094 -0.1042528 2.174814 0 0 0 
-0.1711321 -0.1042438 2.174698 0 0 0 
-0.1692332 -0.1042212 2.174299 0 0 0 
-0.1673817 -0.1042277 2.174505 0 0 0 
-0.1654975 -0.1042138 2.174284 0 0 0 
-0.163624 -0.1042063 2.174196 0 0 0 
-0.1618686 -0.1042748 2.175693 0 0 0 
-0.1601889 -0.1043941 2.178251 0 0 0 
-0.1583153 -0.1043885 2.1782 0 0 0 
-0.1564302 -0.104375 2.177985 0 0 0 
-0.154552 -0.1043659 2.177859 0 0 0 
-0.1526621 -0.1043486 2.177562 0 0 0 
-0.1507549 -0.1043188 2.177005 0 0 0 
-0.1488799 -0.1043109 2.176903 0 0 0 
-0.1469688 -0.1042772 2.17626 0 0 0 
-0.1451254 -0.1042912 2.176614 0 0 0 
-0.1432271 -0.1042657 2.176142 0 0 0 
-0.1412957 -0.1042151 2.175146 0 0 0 
-0.139436 -0.1042167 2.175238 0 0 0 
-0.137563 -0.1042083 2.17512 0 0 0 
-0.1356824 -0.1041938 2.174874 0 0 0 
-0.1338192 -0.1041924 2.174903 0 0 0 
-0.1319611 -0.104195 2.175013 0 0 0 
-0.130129 -0.1042186 2.17556 0 0 0 
-0.1285428 -0.1044426 2.180291 0 0 0 
0.06487606 -0.095283 1.990325 0 0 0 
0.06660042 -0.09531464 1.99096 0 0 0 
0.06830357 -0.09531509 1.990942 0 0 0 
0.07000672 -0.09531553 1.990924 0 0 0 
0.07170621 -0.09531111 1.990803 0 0 0 
0.07341097 -0.09531371 1.990828 0 0 0 
0.07511559 -0.09531602 1.990846 0 0 0 
0.07680036 -0.09529361 1.990348 0 0 0 
0.0784814 -0.09526765 1.989774 0 0 0 
0.08016765 -0.09524898 1.989352 0 0 0 
0.08185744 -0.09523521 1.989032 0 0 0 
0.08357103 -0.09524913 1.98929 0 0 0 
0.08526589 -0.09524157 1.989098 0 0 0 
0.08695054 -0.09522313 1.988678 0 0 0 
0.08863857 -0.09520902 1.988348 0 0 0 
0.0903207 -0.09518924 1.987899 0 0 0 
0.09201396 -0.0951817 1.987704 0 0 0 
0.09372071 -0.09518816 1.987801 0 0 0 
0.095418 -0.09518491 1.987696 0 0 0 
0.09711121 -0.0951778 1.987508 0 0 0 
0.09877786 -0.09514536 1.986791 0 0 0 
0.1004685 -0.09513669 1.98657 0 0 0 
0.1021557 -0.09512518 1.986288 0 0 0 
0.1038643 -0.09513359 1.986422 0 0 0 
0.1055571 -0.09512758 1.986254 0 0 0 
0.1072429 -0.09511546 1.985958 0 0 0 
0.1089183 -0.0950947 1.985481 0 0 0 
0.1105989 -0.09507901 1.985109 0 0 0 
0.1122753 -0.09506023 1.984672 0 0 0 
0.1139686 -0.0950562 1.984542 0 0 0 
0.1156756 -0.09506347 1.984647 0 0 0 
0.1173633 -0.09505487 1.98442 0 0 0 
0.1190415 -0.09503901 1.984041 0 0 0 
0.1207002 -0.0950082 1.983349 0 0 0 
0.1223923 -0.09500422 1.983217 0 0 0 
0.1240811 -0.09499777 1.983032 0 0 0 
0.1257833 -0.09500162 1.983062 0 0 0 
0.1274685 -0.09499277 1.982826 0 0 0 
0.1291394 -0.09497354 1.982372 0 0 0 
0.1308085 -0.09495358 1.981903 0 0 0 
0.1324987 -0.09494922 1.981758 0 0 0 
0.1341653 -0.09492829 1.981267 0 0 0 
0.1358757 -0.09493844 1.981424 0 0 0 
0.1375561 -0.0949277 1.981145 0 0 0 
0.1392144 -0.09490211 1.980554 0 0 0 
0.1409129 -0.09490427 1.980542 0 0 0 
0.1425608 -0.09487266 1.979825 0 0 0 
0.1442667 -0.09487997 1.97992 0 0 0 
0.1459562 -0.09487645 1.979787 0 0 0 
0.1476153 -0.09485348 1.979248 0 0 0 
0.1492952 -0.09484422 1.978994 0 0 0 
0.1509707 -0.09483242 1.978687 0 0 0 
0.1526472 -0.09482147 1.978397 0 0 0 
0.1543553 -0.09483025 1.978518 0 0 0 
0.1560398 -0.09482442 1.978333 0 0 0 
0.1577039 -0.0948065 1.977895 0 0 0 
0.1593659 -0.09478772 1.977439 0 0 0 
0.1610396 -0.0947762 1.977133 0 0 0 
0.1627177 -0.0947675 1.976886 0 0 0 
0.1644432 -0.09478629 1.977211 0 0 0 
0.166088 -0.0947587 1.976569 0 0 0 
0.1677401 -0.09473573 1.976022 0 0 0 
0.1694087 -0.09472249 1.975677 0 0 0 
0.1710832 -0.09471271 1.975403 0 0 0 
0.1727913 -0.09472165 1.97552 0 0 0 
0.1744749 -0.09471704 1.975353 0 0 0 
0.1761277 -0.09469596 1.974842 0 0 0 
0.1777832 -0.09467676 1.97437 0 0 0 
0.1794509 -0.09466437 1.974038 0 0 0 
0.1811529 -0.09467011 1.974085 0 0 0 
0.1828522 -0.09467433 1.974098 0 0 0 
0.1845021 -0.09465317 1.973583 0 0 0 
0.1861565 -0.09463463 1.973121 0 0 0 
0.1878157 -0.09461892 1.972717 0 0 0 
0.1895251 -0.0946285 1.97284 0 0 0 
0.1912217 -0.09463157 1.972826 0 0 0 
0.1928539 -0.09460306 1.972154 0 0 0 
0.1945186 -0.09459081 1.971819 0 0 0 
0.1961817 -0.094578 1.971473 0 0 0 
0.1978846 -0.09458446 1.971527 0 0 0 
0.1995838 -0.094589 1.971541 0 0 0 
0.2012195 -0.09456369 1.970932 0 0 0 
0.202876 -0.09454843 1.970532 0 0 0 
0.204541 -0.09453738 1.970218 0 0 0 
0.2062521 -0.0945477 1.97035 0 0 0 
0.2079214 -0.0945388 1.97008 0 0 0 
0.2095752 -0.09452305 1.969667 0 0 0 
0.2112225 -0.09450465 1.969198 0 0 0 
0.2129041 -0.09450177 1.969051 0 0 0 
0.2146182 -0.09451328 1.969204 0 0 0 
0.2162864 -0.09450453 1.968934 0 0 0 
0.2179261 -0.09448353 1.968408 0 0 0 
0.2195703 -0.09446485 1.96793 0 0 0 
0.2212233 -0.09445016 1.967534 0 0 0 
0.2229591 -0.09447081 1.967873 0 0 0 
0.2246128 -0.09445665 1.967487 0 0 0 
0.2262375 -0.09443053 1.966851 0 0 0 
0.2279037 -0.09442206 1.966583 0 0 0 
0.2295507 -0.0944058 1.966151 0 0 0 
0.2312878 -0.09442654 1.966489 0 0 0 
0.2329647 -0.09442258 1.966312 0 0 0 
0.2346438 -0.09441958 1.966154 0 0 0 
0.2363302 -0.09441955 1.966058 0 0 0 
0.2380651 -0.09443874 1.966361 0 0 0 
0.2397674 -0.09444484 1.966391 0 0 0 
0.2415974 -0.0945008 1.967458 0 0 0 
0.2433833 -0.09453885 1.968151 0 0 0 
0.2451026 -0.09455071 1.968298 0 0 0 
0.2468446 -0.09457106 1.968622 0 0 0 
-0.4921954 -0.1061689 2.232727 0 0 0 
-0.4895039 -0.1060041 2.22946 0 0 0 
-0.4875026 -0.105988 2.229321 0 0 0 
-0.4855119 -0.1059742 2.229227 0 0 0 
-0.4835064 -0.1059569 2.229061 0 0 0 
-0.4815035 -0.1059401 2.228904 0 0 0 
-0.4794776 -0.1059181 2.228637 0 0 0 
-0.4774938 -0.1059053 2.228561 0 0 0 
-0.4754693 -0.1058832 2.228292 0 0 0 
-0.47348 -0.1058689 2.228184 0 0 0 
-0.4714811 -0.1058523 2.228027 0 0 0 
-0.4693103 -0.1057969 2.227051 0 0 0 
-0.467355 -0.1057897 2.227091 0 0 0 
-0.4647065 -0.1056249 2.223812 0 0 0 
-0.462141 -0.1054778 2.220902 0 0 0 
-0.4598405 -0.1053901 2.219244 0 0 0 
-0.4578749 -0.1053787 2.219193 0 0 0 
-0.4558625 -0.1053565 2.21891 0 0 0 
-0.4538111 -0.105325 2.218433 0 0 0 
-0.451867 -0.1053183 2.218476 0 0 0 
-0.4498912 -0.105304 2.21836 0 0 0 
-0.4479148 -0.1052896 2.218238 0 0 0 
-0.4457381 -0.1052277 2.217117 0 0 0 
-0.4437931 -0.1052202 2.21714 0 0 0 
-0.4415786 -0.1051485 2.21581 0 0 0 
-0.4396149 -0.1051361 2.21573 0 0 0 
-0.4376198 -0.1051161 2.215487 0 0 0 
-0.4357088 -0.1051162 2.215668 0 0 0 
-0.4337382 -0.1051019 2.215544 0 0 0 
-0.4317474 -0.1050825 2.215312 0 0 0 
-0.4296662 -0.1050409 2.21461 0 0 0 
-0.4277522 -0.1050399 2.214765 0 0 0 
-0.4256929 -0.1050031 2.214164 0 0 0 
-0.4237228 -0.1049881 2.214021 0 0 0 
-0.4215051 -0.1049112 2.212574 0 0 0 
-0.4197583 -0.1049515 2.213595 0 0 0 
-0.4177786 -0.1049336 2.213389 0 0 0 
-0.4157282 -0.1048977 2.212803 0 0 0 
-0.4137687 -0.1048846 2.212695 0 0 0 
-0.4117401 -0.1048537 2.212212 0 0 0 
-0.4096624 -0.1048099 2.211458 0 0 0 
-0.4076349 -0.1047787 2.210966 0 0 0 
-0.4056485 -0.1047578 2.210691 0 0 0 
-0.4036523 -0.1047341 2.210357 0 0 0 
-0.4016806 -0.1047166 2.210154 0 0 0 
-0.3996899 -0.104694 2.20984 0 0 0 
-0.397709 -0.1046737 2.209576 0 0 0 
-0.3957392 -0.1046562 2.209369 0 0 0 
-0.3937706 -0.1046388 2.209164 0 0 0 
-0.3918185 -0.1046257 2.209048 0 0 0 
-0.3898236 -0.1046009 2.208685 0 0 0 
-0.3878914 -0.1045929 2.208675 0 0 0 
-0.3859308 -0.104577 2.208498 0 0 0 
-0.3839585 -0.1045578 2.208251 0 0 0 
-0.3820447 -0.1045544 2.208337 0 0 0 
-0.3800927 -0.1045405 2.208199 0 0 0 
-0.3780155 -0.1044919 2.207328 0 0 0 
-0.3760081 -0.1044621 2.206854 0 0 0 
-0.3739527 -0.1044186 2.206089 0 0 0 
-0.3719788 -0.1043976 2.205798 0 0 0 
-0.3698345 -0.1043283 2.204486 0 0 0 
-0.3679589 -0.1043345 2.204768 0 0 0 
-0.3660291 -0.1043252 2.204724 0 0 0 
-0.3641037 -0.1043172 2.204704 0 0 0 
-0.3620639 -0.1042761 2.203985 0 0 0 
-0.3601442 -0.1042693 2.203991 0 0 0 
-0.3581519 -0.1042414 2.203548 0 0 0 
-0.3561824 -0.1042198 2.203239 0 0 0 
-0.3541552 -0.1041811 2.202566 0 0 0 
-0.3521645 -0.1041526 2.202111 0 0 0 
-0.3502483 -0.1041461 2.202117 0 0 0 
-0.348302 -0.1041305 2.20193 0 0 0 
-0.346392 -0.1041256 2.20197 0 0 0 
-0.3444448 -0.1041094 2.20177 0 0 0 
-0.3424252 -0.1040711 2.201101 0 0 0 
-0.3405364 -0.1040723 2.201267 0 0 0 
-0.3385442 -0.1040417 2.200761 0 0 0 
-0.3365832 -0.1040205 2.200451 0 0 0 
-0.334645 -0.1040061 2.200284 0 0 0 
-0.3327174 -0.1039948 2.200182 0 0 0 
-0.3307089 -0.103958 2.199541 0 0 0 
-0.3286558 -0.1039066 2.19859 0 0 0 
-0.3268201 -0.1039238 2.19909 0 0 0 
-0.3248805 -0.103908 2.198889 0 0 0 
-0.3229394 -0.1038915 2.198673 0 0 0 
-0.3209735 -0.1038668 2.198283 0 0 0 
-0.3190316 -0.1038496 2.198051 0 0 0 
-0.3170591 -0.1038222 2.197602 0 0 0 
-0.3151093 -0.1038019 2.197303 0 0 0 
-0.3131443 -0.1037763 2.196892 0 0 0 
-0.3111941 -0.1037554 2.196578 0 0 0 
-0.3092133 -0.103724 2.19604 0 0 0 
-0.3072338 -0.1036926 2.195503 0 0 0 
-0.3053178 -0.1036824 2.195413 0 0 0 
-0.303342 -0.1036516 2.194888 0 0 0 
-0.3013899 -0.1036286 2.194525 0 0 0 
-0.2994409 -0.1036064 2.194179 0 0 0 
-0.2974963 -0.1035854 2.193858 0 0 0 
-0.2955764 -0.1035728 2.193714 0 0 0 
-0.2936426 -0.1035552 2.193463 0 0 0 
-0.2917419 -0.1035491 2.193454 0 0 0 
-0.2898436 -0.1035437 2.193461 0 0 0 
-0.2878844 -0.1035164 2.193002 0 0 0 
-0.285855 -0.1034633 2.191996 0 0 0 
-0.2839482 -0.1034542 2.191921 0 0 0 
-0.2820148 -0.1034353 2.191637 0 0 0 
-0.2800011 -0.1033864 2.190717 0 0 0 
-0.2781152 -0.1033844 2.19079 0 0 0 
-0.2762024 -0.1033722 2.190648 0 0 0 
-0.2743092 -0.1033673 2.190657 0 0 0 
-0.2724167 -0.1033626 2.19067 0 0 0 
-0.2704492 -0.1033292 2.190075 0 0 0 
-0.2684501 -0.1032831 2.189211 0 0 0 
-0.2665375 -0.1032699 2.189042 0 0 0 
-0.2646093 -0.1032505 2.18874 0 0 0 
-0.2626766 -0.103229 2.188393 0 0 0 
-0.2607855 -0.1032237 2.188388 0 0 0 
-0.258779 -0.1031722 2.187405 0 0 0 
-0.2569233 -0.1031806 2.18769 0 0 0 
-0.2550349 -0.1031759 2.187696 0 0 0 
-0.2531361 -0.1031669 2.18761 0 0 0 
-0.2512243 -0.1031523 2.187407 0 0 0 
-0.2492308 -0.1031038 2.186482 0 0 0 
-0.2473528 -0.1031027 2.186561 0 0 0 
-0.2453774 -0.1030607 2.185773 0 0 0 
-0.2434983 -0.1030588 2.185834 0 0 0 
-0.2415415 -0.1030237 2.18519 0 0 0 
-0.2396208 -0.1030036 2.184863 0 0 0 
-0.2377325 -0.1029972 2.184827 0 0 0 
-0.2357538 -0.1029512 2.183949 0 0 0 
-0.233833 -0.10293 2.183597 0 0 0 
-0.231953 -0.1029265 2.183621 0 0 0 
-0.2300353 -0.1029061 2.183284 0 0 0 
-0.2281491 -0.1028996 2.183241 0 0 0 
-0.2262207 -0.1028739 2.182789 0 0 0 
-0.2243093 -0.1028554 2.182491 0 0 0 
-0.2223973 -0.1028364 2.18218 0 0 0 
-0.2204779 -0.1028136 2.181789 0 0 0 
-0.2185765 -0.1027989 2.181568 0 0 0 
-0.2166559 -0.1027748 2.181147 0 0 0 
-0.214744 -0.1027545 2.180806 0 0 0 
-0.212848 -0.1027415 2.180619 0 0 0 
-0.2109531 -0.1027288 2.180437 0 0 0 
-0.2090455 -0.1027096 2.180118 0 0 0 
-0.2071351 -0.1026887 2.179761 0 0 0 
-0.2052128 -0.1026615 2.179269 0 0 0 
-0.2033254 -0.1026514 2.179139 0 0 0 
-0.2014729 -0.1026589 2.179382 0 0 0 
-0.1996062 -0.1026592 2.179472 0 0 0 
-0.1976343 -0.1026049 2.178403 0 0 0 
-0.1957226 -0.1025811 2.17798 0 0 0 
-0.1937828 -0.1025421 2.177232 0 0 0 
-0.1918926 -0.1025287 2.177029 0 0 0 
-0.1900187 -0.1025239 2.177006 0 0 0 
-0.1881182 -0.1025045 2.176673 0 0 0 
-0.1861826 -0.1024654 2.17592 0 0 0 
-0.1843458 -0.1024804 2.176316 0 0 0 
-0.1824935 -0.102487 2.176534 0 0 0 
-0.1806282 -0.1024864 2.176597 0 0 0 
-0.1786553 -0.1024241 2.175348 0 0 0 
-0.1768481 -0.1024565 2.176111 0 0 0 
-0.1749353 -0.1024277 2.175573 0 0 0 
-0.1730417 -0.1024097 2.175263 0 0 0 
-0.1710934 -0.1023586 2.17425 0 0 0 
-0.1692574 -0.1023743 2.174653 0 0 0 
-0.1673547 -0.1023495 2.174197 0 0 0 
-0.1654871 -0.1023459 2.17419 0 0 0 
-0.1636174 -0.1023408 2.174152 0 0 0 
-0.1619881 -0.1024878 2.177342 0 0 0 
-0.160174 -0.1025199 2.178092 0 0 0 
-0.1583062 -0.1025181 2.178118 0 0 0 
-0.1564106 -0.1024979 2.177756 0 0 0 
-0.1545211 -0.1024813 2.177468 0 0 0 
-0.1526394 -0.1024695 2.177282 0 0 0 
-0.1507467 -0.10245 2.17693 0 0 0 
-0.1488777 -0.1024462 2.176913 0 0 0 
-0.1469882 -0.1024281 2.176591 0 0 0 
-0.1450608 -0.1023828 2.17569 0 0 0 
-0.1431906 -0.1023772 2.175631 0 0 0 
-0.141303 -0.1023589 2.175301 0 0 0 
-0.1394315 -0.1023519 2.175211 0 0 0 
-0.1375474 -0.1023353 2.174917 0 0 0 
-0.1356917 -0.1023397 2.175067 0 0 0 
-0.133813 -0.1023266 2.174845 0 0 0 
-0.1319626 -0.1023351 2.175081 0 0 0 
-0.1301313 -0.1023588 2.175641 0 0 0 
0.06483188 -0.09351721 1.989007 0 0 0 
0.06658619 -0.09359204 1.990572 0 0 0 
0.06830252 -0.09361104 1.990949 0 0 0 
0.07000092 -0.09360517 1.990797 0 0 0 
0.07170957 -0.09361297 1.990934 0 0 0 
0.07340855 -0.09360805 1.9908 0 0 0 
0.07510956 -0.09360588 1.990724 0 0 0 
0.07679864 -0.09358931 1.990341 0 0 0 
0.07846888 -0.09355099 1.989495 0 0 0 
0.08016181 -0.09354075 1.989245 0 0 0 
0.08185682 -0.09353333 1.989055 0 0 0 
0.08356063 -0.09353606 1.98908 0 0 0 
0.08525912 -0.09353287 1.988978 0 0 0 
0.08694733 -0.09351873 1.988643 0 0 0 
0.08862803 -0.09349722 1.98815 0 0 0 
0.0903173 -0.09348539 1.987862 0 0 0 
0.09201375 -0.09348129 1.987738 0 0 0 
0.09371167 -0.09347881 1.987648 0 0 0 
0.09541283 -0.09347959 1.987626 0 0 0 
0.09710382 -0.09347057 1.987395 0 0 0 
0.09877937 -0.09344723 1.986859 0 0 0 
0.1004614 -0.09343071 1.986468 0 0 0 
0.102153 -0.09342358 1.986275 0 0 0 
0.1038483 -0.09341989 1.986155 0 0 0 
0.1055506 -0.09342255 1.986169 0 0 0 
0.1072413 -0.09341507 1.985967 0 0 0 
0.108916 -0.09339403 1.985476 0 0 0 
0.1105807 -0.0933653 1.984821 0 0 0 
0.1122677 -0.09335597 1.984577 0 0 0 
0.1139714 -0.09336048 1.984627 0 0 0 
0.1156781 -0.09336741 1.984728 0 0 0 
0.1173688 -0.09336132 1.984551 0 0 0 
0.1190228 -0.09332674 1.983768 0 0 0 
0.1207008 -0.09331159 1.983398 0 0 0 
0.1223812 -0.09329873 1.983075 0 0 0 
0.1240792 -0.09329947 1.983041 0 0 0 
0.125779 -0.09330152 1.983033 0 0 0 
0.1274547 -0.09328582 1.982648 0 0 0 
0.1291332 -0.09327263 1.982316 0 0 0 
0.1307977 -0.09324975 1.981777 0 0 0 
0.1324861 -0.09324437 1.981609 0 0 0 
0.1341518 -0.09322326 1.981106 0 0 0 
0.1358869 -0.0932503 1.981626 0 0 0 
0.1375454 -0.09322482 1.981029 0 0 0 
0.1392122 -0.09320551 1.980562 0 0 0 
0.1408903 -0.09319407 1.980262 0 0 0 
0.1425584 -0.09317644 1.97983 0 0 0 
0.1442769 -0.09319174 1.980097 0 0 0 
0.1459726 -0.09319221 1.980048 0 0 0 
0.1476349 -0.09317151 1.979548 0 0 0 
0.149296 -0.09315057 1.979043 0 0 0 
0.1509607 -0.09313232 1.978594 0 0 0 
0.152617 -0.0931093 1.978043 0 0 0 
0.1543611 -0.09313986 1.97863 0 0 0 
0.1560317 -0.09312583 1.978269 0 0 0 
0.1577005 -0.09311105 1.977891 0 0 0 
0.1593655 -0.09309435 1.977472 0 0 0 
0.1610318 -0.09307879 1.977076 0 0 0 
0.1627195 -0.09307579 1.976946 0 0 0 
0.1644279 -0.09308454 1.977066 0 0 0 
0.1660843 -0.09306399 1.976562 0 0 0 
0.1677314 -0.09303875 1.975958 0 0 0 
0.1694162 -0.09303466 1.975802 0 0 0 
0.1710998 -0.09303001 1.975634 0 0 0 
0.1727895 -0.09302872 1.975537 0 0 0 
0.174471 -0.09302309 1.975347 0 0 0 
0.176145 -0.09301365 1.975075 0 0 0 
0.1777718 -0.09297966 1.974281 0 0 0 
0.1794525 -0.09297425 1.974093 0 0 0 
0.18117 -0.09298787 1.974309 0 0 0 
0.1828475 -0.09298083 1.974086 0 0 0 
0.1845086 -0.09296571 1.97369 0 0 0 
